# .PCD v0.7 - Point Cloud Data file format
VERSION 0.7
FIELDS x y z intensity
SIZE 4 4 4 4
TYPE F F F F
COUNT 1 1 1 1
WIDTH 1395
HEIGHT 1
VIEWPOINT 0 0 0 1 0 0 0
POINTS 1395
DATA ascii
-1.4548976 -8.0018444 1.5164353 0
-1.9811102 -9.6833715 1.3417885 0
-1.0780301 -7.8240795 1.5300847 0
-0.39235088 -9.582262 1.5536593 0
-0.39084637 -9.8091536 1.6365691 0
-0.30743679 -10.415778 1.6551454 0
-6.7305207 -11.006031 1.6645492 0
-6.6496935 -11.356102 1.7227108 0
-6.6332574 -11.899858 1.5662911 0
-7.4630957 -15.461741 1.671517 0
-6.5709476 -12.056659 1.616892 0
-6.5558157 -12.198371 1.6041743 0
-4.345161 -10.155242 1.698487 0
-2.2153125 -8.4128036 1.7507912 0
-5.5147786 -28.566998 1.4752445 0
-0.41055456 -9.6096668 2.0036626 0
-0.39126697 -9.8743706 2.0856235 0
3.1752403 -10.992012 2.1708577 0
3.2565565 -10.822447 2.1740363 0
3.2095084 -10.913027 2.1660614 0
3.1629968 -11.568183 2.116437 0
3.1657095 -11.971235 2.1564462 0
-4.2844329 -7.0903273 0.22261605 0
-3.6098464 -10.659032 0.142423 0
-2.3237705 -7.8950853 0.25192672 0
-7.0275331 -10.102831 0.15000494 0
-7.0689116 -10.37942 0.17553282 0
-6.6512136 -10.186573 0.46620798 0
-6.4682102 -10.289196 0.47603959 0
-6.7008004 -11.160934 0.34984937 0
-6.7193775 -11.289288 0.13567469 0
-7.4327464 -15.235349 0.25158769 0
-5.9773121 -9.6353407 0.20765164 0
-6.0042796 -9.9660101 0.25510788 0
-6.2587962 -10.474483 0.35931981 0
-6.6639595 -13.12597 0.31073594 0
-6.9187016 -15.246182 0.25178039 0
-7.4113445 -15.224996 0.30347094 0
-4.9154835 -7.0124936 0.62152255 0
-5.7278194 -10.021016 0.15754162 0
-5.621397 -10.698511 0.57496893 0
-5.7986693 -11.812272 0.12237516 0
-6.2789912 -12.146931 0.46584314 0
-6.1408191 -12.739694 0.46667379 0
-6.2281628 -13.157804 0.29827723 0
-4.3258152 -7.0816522 0.40453914 0
-4.3252296 -7.196455 0.41410798 0
-5.2122149 -9.9871855 0.39261228 0
-5.2057343 -10.423969 0.40627143 0
-5.3429604 -10.7292 0.28319773 0
-5.5518413 -11.077034 0.15307254 0
-5.6778712 -11.881303 0.12364338 0
-5.7011662 -12.664415 0.27131957 0
-3.7346327 -6.6282587 0.5246402 0
-3.7527673 -6.8682938 0.51110744 0
-4.253901 -7.1726475 0.2424946 0
-4.2710204 -9.6177073 0.49844721 0
-4.3754377 -9.7530766 0.33515701 0
-5.0175681 -12.549323 0.28916061 0
-5.2517209 -12.547693 0.25977841 0
-3.4504714 -6.2666793 0.63920981 0
-3.5029495 -6.3448381 0.61276519 0
-4.0129805 -9.5987749 0.43884856 0
-3.9784114 -10.17178 0.39869478 0
-4.0182271 -10.22845 0.21207982 0
-3.7364085 -10.212703 0.37157449 0
-3.5198393 -10.550122 0.47177252 0
-3.6096458 -10.868144 0.24927188 0
-2.6785083 -8.2719479 0.49279472 0
-2.5916388 -8.4970198 0.33015162 0
-3.0446231 -10.206753 0.38987371 0
-3.2809665 -10.52476 0.45552292 0
-2.1354852 -7.8360605 0.46222571 0
-2.2036114 -8.3721886 0.60440391 0
-2.1333635 -8.61166 0.37971321 0
-2.6858397 -10.20396 0.41855735 0
-4.4272027 -18.605837 0.26019004 0
-4.2717137 -18.977692 0.13600832 0
-4.3438082 -19.900843 0.28892237 0
-1.5818636 -7.8521829 0.50976247 0
-2.0941651 -9.8166485 0.37836361 0
-2.008697 -10.164865 0.38182259 0
-3.1025593 -14.673224 0.20984772 0
-4.2677412 -19.901627 0.25388092 0
-1.2108388 -7.7130103 0.38900247 0
-1.2582248 -7.8005085 0.55814314 0
-1.630278 -9.9537468 0.47137031 0
-1.7704667 -10.23683 0.43424702 0
-3.8179913 -21.501608 0.13183104 0
-0.67292869 -7.7742496 0.65326083 0
-0.68705809 -8.0448227 0.75233209 0
-0.14347467 -7.8040428 0.66377157 0
-0.15453254 -8.1659584 0.6051349 0
-0.63957602 -9.5722389 0.68250614 0
2.8403401 -8.4952154 0.58773416 0
2.7821524 -8.6325722 0.60083985 0
3.1963735 -9.9646797 0.56696844 0
3.0177972 -10.476595 0.58328784 0
3.5501111 -9.8387671 0.52408415 0
4.4048285 -9.3220978 0.74164325 0
4.4042768 -9.4199247 0.7559768 0
4.2090201 -10.526942 0.68959767 0
4.3294692 -10.456221 0.71440548 0
5.8016548 -10.148236 0.75521362 0
5.5140877 -10.487748 0.56620079 0
5.57444 -10.852694 0.77867764 0
5.856431 -10.119068 0.90256739 0
7.0562878 -10.692164 0.76368922 0
7.0102415 -10.921249 0.62212485 0
7.3870926 -10.871286 0.73956925 0
8.3231487 -11.609469 0.89690602 0
8.3178816 -11.749953 0.7773509 0
-8.412406 -11.648469 0.52279097 0
-6.6959944 -10.19423 0.66150975 0
-6.5948672 -10.386177 0.68650925 0
-6.7340941 -11.036955 0.85809356 0
-6.6583152 -11.358274 0.65574759 0
-6.2726688 -10.174912 0.63841534 0
-6.217052 -10.575938 0.63944316 0
-6.2814398 -11.995954 0.69909829 0
-4.8958941 -6.9998145 0.71177381 0
-5.6946273 -10.2594 0.68822443 0
-5.8121667 -10.740292 0.64554781 0
-6.2751036 -12.102222 0.75938582 0
-5.9461999 -12.655498 0.60368717 0
-6.0438142 -13.388263 0.92723602 0
-6.1085739 -13.630054 0.77678961 0
-4.3376074 -7.0839639 0.74918985 0
-4.3754272 -7.5557303 1.1175958 0
-5.7638636 -12.636742 0.60198146 0
-6.0171585 -13.624797 0.82236528 0
-6.0835094 -15.985972 0.8338362 0
-3.7288222 -6.6116333 0.8684817 0
-3.7363105 -6.879715 0.97390652 0
-4.3024173 -7.4826665 1.1200221 0
-4.2844081 -9.4998732 0.89667892 0
-5.0776072 -12.582831 0.59946048 0
-3.6681793 -6.7023373 0.91196835 0
-3.6874261 -6.8247957 0.89351124 0
-4.051681 -9.5775547 0.86214864 0
-3.9368825 -10.094352 0.79456031 0
-4.1458073 -11.181113 1.0311837 0
-3.6017418 -10.224415 0.77160698 0
-3.5703254 -10.488151 0.97616267 0
-3.5480509 -10.908365 0.65157592 0
-2.6347048 -8.2411757 0.96844941 0
-3.1170666 -10.315967 0.8969658 0
-3.2224214 -10.474376 1.0296668 0
-3.1363328 -11.100654 0.68316078 0
-2.1207695 -7.86657 1.0117164 0
-2.220665 -8.3954973 0.98059589 0
-2.3020239 -8.5754786 0.97295588 0
-2.6865015 -10.427896 0.92302221 0
-2.5594685 -10.561376 1.0403942 0
-4.5073628 -20.72666 0.67626172 0
-4.5447283 -20.940729 0.55532324 0
-1.474655 -7.9495368 1.0648222 0
-1.9700136 -9.750514 0.93667889 0
-3.3879149 -17.914785 0.61180371 0
-1.0855098 -7.9385977 1.1109433 0
-1.6296676 -10.428622 0.94191432 0
-3.1822128 -17.996283 0.80781698 0
-0.5622685 -8.1678534 1.0496103 0
-0.7017926 -9.5897446 0.92705601 0
-1.1478951 -10.304478 0.90967357 0
-1.1932837 -10.306293 0.86739028 0
-0.27817935 -7.8041396 0.83785462 0
-0.54499823 -9.5802603 0.92388606 0
2.8264375 -8.5125256 1.1383423 0
2.7777863 -8.6669111 1.2238683 0
2.904279 -10.536845 1.0276214 0
4.4018245 -9.4547215 1.0251592 0
4.1873102 -11.268682 1.1921579 0
5.2062683 -11.833161 1.0547018 0
5.915103 -9.9921265 1.4089463 0
7.6763272 -9.946455 1.3878828 0
7.4267173 -10.956924 0.94843876 0
8.3154593 -11.520338 1.1584868 0
8.3212585 -11.774931 1.2265848 0
8.365716 -12.475226 1.2111599 0
-6.7858186 -10.32431 1.14776 0
-6.7865129 -11.027685 1.3759075 0
-6.6898985 -11.317922 1.485631 0
-6.6503549 -11.581361 1.4581943 0
-6.6095548 -12.095584 1.3611199 0
-6.6240869 -12.377138 1.2510421 0
-4.8676491 -6.7975044 1.3510867 0
-4.3021426 -9.4888639 1.3075919 0
-4.0770421 -9.5788202 1.3670731 0
-3.9256897 -9.7981586 1.3711483 0
-4.1051812 -11.150421 1.1396695 0
-3.4821484 -10.418431 1.2266506 0
-2.6300266 -8.2411013 1.3697234 0
-3.1300905 -10.431126 1.247824 0
-3.349334 -10.411909 1.2318217 0
-2.1405973 -7.8274555 1.3304983 0
-2.2508273 -8.4343147 1.4533381 0
-2.3500733 -8.5814705 1.5044096 0
-1.4633981 -7.92029 1.5501587 0
-1.979044 -9.6100569 1.4080215 0
-1.9468954 -9.7301149 1.4506193 0
-1.097741 -7.7630539 1.5266165 0
-1.1515485 -7.8756914 1.4913557 0
-5.4443603 -28.548477 0.88437402 0
-0.40412453 -9.6360426 1.5644783 0
2.7643983 -8.5540237 1.3754911 0
2.8092678 -8.7480555 1.4164363 0
2.7329905 -10.658277 1.3673435 0
5.9002614 -12.28068 1.6703579 0
8.3401203 -10.024992 1.8416777 0
8.3197994 -10.312191 1.8383245 0
8.1967335 -10.812581 1.9455198 0
8.2861862 -11.431868 1.7038487 0
8.2085991 -12.208882 1.6906005 0
8.3950233 -12.650023 1.714535 0
8.3628645 -12.983365 1.7125868 0
8.4081945 -13.753001 1.7217929 0
-6.7290945 -11.041613 1.9155252 0
-6.7217865 -11.28289 1.7629616 0
-6.6414852 -11.57512 1.7496084 0
-6.6212068 -12.073244 1.6159047 0
-6.6634245 -12.511931 1.7446617 0
-2.2172887 -8.3868723 1.7543992 0
-0.43772396 -9.6650324 2.1742377 0
3.1823864 -11.054651 2.0229294 0
3.1328816 -11.374679 2.0386424 0
8.3321972 -10.049145 2.217582 0
8.3240709 -10.276768 2.1666384 0
8.1491814 -10.965376 2.1662569 0
8.3263969 -10.406892 2.2937517 0
8.1902666 -11.112271 2.0372524 0
8.2273369 -11.373012 2.225018 0
8.3778944 -12.490875 2.0096347 0
8.3664484 -12.826657 2.0181785 0
-4.3618555 -7.0984263 0.18130402 0
-3.7330163 -6.6857257 0.21021082 0
-2.3135998 -7.8589892 0.22862212 0
-8.3807631 -11.661393 0.45758086 0
-7.0414567 -10.082104 0.062114861 0
-7.0935941 -10.363733 0.15012938 0
-6.6745234 -10.188528 0.45374158 0
-6.5146265 -10.271806 0.47500017 0
-6.7256789 -11.200712 0.28677571 0
-6.7324038 -11.234522 0.27980277 0
-7.5894413 -15.23796 0.27084059 0
-5.9940147 -9.6512165 0.2007547 0
-5.9862924 -10.007434 0.15648004 0
-6.285882 -10.432967 0.40826291 0
-7.368515 -15.233438 0.27345523 0
-4.9681253 -7.0421853 0.57736129 0
-5.7177539 -10.123797 0.32931834 0
-5.5914984 -11.037935 0.24912158 0
-5.8157725 -11.832557 0.10346717 0
-6.0641651 -12.710588 0.37902963 0
-6.2336216 -13.114128 0.30337176 0
-6.8758268 -15.254397 0.30613723 0
-4.3532758 -7.1048021 0.34892717 0
-4.329041 -7.1887698 0.37277344 0
-5.1946063 -10.003746 0.37892765 0
-5.4453969 -10.833756 0.2803475 0
-5.5254254 -11.089156 0.25107741 0
-5.6823049 -11.867159 0.092588723 0
-5.5877256 -12.603951 0.27124125 0
-5.9145718 -13.106787 0.29464918 0
-3.7566142 -6.6562986 0.47472057 0
-3.7694159 -6.8812642 0.47564951 0
-4.267653 -7.1895599 0.21355841 0
-5.0080872 -12.559821 0.28799382 0
-5.2635074 -12.56257 0.23478532 0
-3.4599004 -6.2797627 0.6024313 0
-3.5196223 -6.3790059 0.57489663 0
-3.9736226 -10.235204 0.40316668 0
-4.1153479 -10.242091 0.32530642 0
-3.3223269 -9.1472626 0.41158542 0
-3.7413313 -10.23896 0.36807767 0
-3.602807 -10.507247 0.35130122 0
-2.6958454 -8.2894115 0.47311038 0
-2.6106958 -8.5128717 0.30600131 0
-2.9859483 -9.2968531 0.4461253 0
-3.1238472 -10.225091 0.33881271 0
-3.2918699 -10.559238 0.35962799 0
-2.1469882 -7.8511434 0.43872333 0
-2.213259 -8.376708 0.57829946 0
-2.1789706 -8.6297131 0.36137652 0
-2.6906576 -10.22528 0.40278143 0
-1.5985358 -7.8665266 0.49756467 0
-2.1486151 -9.7881737 0.34780714 0
-1.9273518 -10.20221 0.46728867 0
-3.2426665 -14.770675 0.19950888 0
-1.1095068 -7.7569442 0.35614705 0
-1.2627857 -7.8287549 0.5372442 0
-1.6218617 -9.974206 0.48590627 0
-1.7938918 -10.263861 0.42200735 0
-0.68346542 -7.796484 0.65077031 0
-0.68647164 -8.0856266 0.74676895 0
-0.70968121 -9.6082525 0.66216606 0
-0.14320518 -7.8213592 0.65065944 0
-0.15675941 -8.1525993 0.62062669 0
-0.61605853 -9.5913658 0.72945112 0
2.8256512 -8.5159054 0.66273111 0
2.7483411 -8.6734419 0.56700474 0
3.2041986 -9.9740038 0.55752569 0
2.9863217 -10.492042 0.59482759 0
3.548368 -9.8738155 0.5503124 0
4.3767581 -9.3858728 0.72703427 0
4.1679945 -10.585349 0.77264458 0
4.2999549 -10.503949 0.75590092 0
5.570961 -10.45557 0.57572764 0
5.5616503 -10.905402 0.81313246 0
5.8553152 -10.185174 0.78030306 0
5.9605379 -10.736738 0.79852349 0
7.115675 -10.889837 0.70145702 0
7.4057984 -11.118072 0.90489292 0
8.3027077 -11.651588 0.87483764 0
8.3365154 -12.579846 0.93315804 0
-8.3265743 -11.569861 0.56909585 0
-6.7003655 -10.202227 0.67077708 0
-6.6598525 -10.404774 0.65955049 0
-6.7843332 -11.032756 0.87476164 0
-6.2515926 -10.652534 0.62467617 0
-6.5521898 -10.814628 0.60781342 0
-6.3205132 -12.116157 0.67069411 0
-6.4499016 -12.686699 0.5742659 0
-4.9660425 -7.0193634 0.68781728 0
-5.6509328 -10.257595 0.6754722 0
-5.8377609 -10.769557 0.60998636 0
-6.1847501 -11.700307 0.69514692 0
-6.268291 -12.136399 0.72744399 0
-6.1544952 -12.650693 0.5724479 0
-6.1144786 -13.475022 0.94856578 0
-4.3539162 -7.1179738 0.70318568 0
-4.3987331 -7.423656 0.97835433 0
-5.7059383 -12.628107 0.5715133 0
-6.0863757 -13.621746 0.8247472 0
-3.7476392 -6.6467752 0.83808357 0
-3.7521875 -6.8957567 0.93638968 0
-4.3073115 -7.4869618 1.0871522 0
-5.0301514 -12.586049 0.57352346 0
-5.268641 -12.581458 0.57107759 0
-3.686569 -6.7376609 0.87669337 0
-3.7012424 -6.8318639 0.85888124 0
-4.0191784 -10.210816 0.69264847 0
-4.1178088 -11.174098 1.0123219 0
-4.2361193 -11.29137 1.025969 0
-3.1662805 -8.9050646 1.1202713 0
-3.2731512 -9.0571327 0.91527981 0
-3.672344 -10.240175 0.75201726 0
-3.6226935 -10.502441 0.95407224 0
-2.6590009 -8.2442122 0.94491905 0
-2.999094 -8.9220667 1.0102478 0
-3.0752575 -9.1718903 0.85080445 0
-2.9299097 -9.4874125 0.73331553 0
-3.0977645 -10.669816 0.8896274 0
-2.1398928 -7.8813868 1.002064 0
-2.2463634 -8.4074574 0.97631758 0
-2.3188775 -8.5884399 0.97768611 0
-2.7287569 -10.438929 0.92417282 0
-2.5328925 -10.62193 0.94660378 0
-1.4896355 -7.9735775 1.0500549 0
-1.9987303 -9.754385 0.91517025 0
-1.1210051 -7.9486232 1.0864043 0
-1.6937808 -10.398904 0.89225745 0
-3.2999375 -17.982933 0.6179089 0
-0.51102257 -7.8199506 0.84371108 0
-0.59161025 -8.2092113 0.98751682 0
-0.72765231 -9.605032 0.88051063 0
-1.2129499 -10.316543 0.88876992 0
-0.55676162 -9.5984735 0.93497819 0
2.8026574 -8.539917 1.1919235 0
2.7570801 -8.6844673 1.2117594 0
2.6342442 -10.657972 1.1839498 0
2.9667337 -10.548589 0.94073856 0
2.8424282 -10.659175 1.12068 0
4.3776908 -9.3888483 1.0232022 0
5.6073585 -11.004528 0.90708059 0
5.8709731 -10.133249 1.1781757 0
7.2944837 -9.8819256 1.0864823 0
7.3761754 -10.954418 1.1337066 0
8.316885 -11.645103 1.2466618 0
8.2414236 -11.983857 1.3078905 0
8.3575792 -12.687279 1.4007726 0
-11.756001 -16.452562 1.1849027 0
-6.7815089 -10.351038 1.1086097 0
-6.8044662 -11.078608 1.3357327 0
-6.6665463 -11.617819 1.4452319 0
-6.6547823 -12.065994 1.318606 0
-6.6971564 -12.52047 1.4127557 0
-4.8445358 -6.7834888 1.4184774 0
-4.167717 -11.174575 1.1318258 0
-3.2739697 -9.0126305 1.2780201 0
-4.08638 -11.215404 1.1264728 0
-2.66026 -8.2595596 1.3467393 0
-3.0648913 -9.1722565 1.4923279 0
-2.1603925 -7.8218503 1.3144518 0
-2.2770083 -8.4580488 1.4564457 0
-2.4196703 -8.5769281 1.4031337 0
-2.8910637 -10.545872 1.1590832 0
-1.4848009 -7.9579325 1.5376874 0
-2.0382912 -9.6343632 1.3842434 0
-1.10419 -7.8022199 1.4545834 0
-1.1397238 -7.882925 1.5228757 0
-0.46876675 -9.6318083 1.579325 0
-0.3832542 -10.078668 1.6612136 0
2.748481 -8.5366144 1.3918332 0
2.79354 -8.7278099 1.4335712 0
2.684803 -10.776678 1.3690072 0
5.7018533 -12.35873 1.6628462 0
6.5956492 -12.810095 1.5158979 0
8.3209372 -10.173977 1.9656976 0
8.3032713 -10.264873 1.7320302 0
8.1249771 -10.993846 1.9539886 0
8.2972479 -10.459313 1.9677902 0
8.2410564 -11.410763 1.8473717 0
8.2360115 -11.794125 1.7148162 0
8.3338442 -12.512036 1.7301128 0
8.3636656 -13.056594 1.7386193 0
-6.7917814 -11.08072 1.7198441 0
-6.7115145 -11.314975 1.7499514 0
-6.6589603 -11.627308 1.6751019 0
-6.6476579 -12.136566 1.5916349 0
-6.6107655 -12.325998 1.5979836 0
-3.0695899 -9.1859512 1.7249467 0
-2.2299716 -8.4091187 1.7445039 0
-0.45507568 -9.6648006 2.1197286 0
0.91138935 -11.140181 1.8265219 0
3.1424093 -11.191349 2.0297296 0
3.1143725 -11.533415 2.0551443 0
6.0078225 -11.079676 2.1604114 0
8.2904758 -10.056973 2.2632754 0
8.2869596 -10.288536 2.3944819 0
8.111599 -11.036235 2.1758189 0
8.3072777 -10.422577 2.1670277 0
8.1454639 -11.173277 2.1908777 0
8.1950121 -11.546635 2.1782658 0
8.188529 -12.289907 1.9987603 0
8.3472548 -12.712376 2.0353534 0
8.3479223 -13.787118 2.0769012 0
-4.7781634 -6.2570333 0.15510401 0
-4.8472385 -6.3615289 0.14824671 0
-4.4735432 -6.4003868 0.16539811 0
-4.3617892 -7.2920399 0.15877534 0
-4.3895822 -7.3866911 0.1548456 0
-3.7552602 -6.7978344 0.19444136 0
-4.2418408 -7.1522713 0.1677765 0
-4.8540726 -11.701169 0.093455642 0
-4.7825828 -11.906241 0.094403103 0
-2.754498 -8.2458048 0.23354906 0
-2.7899616 -8.2677574 0.23060183 0
-2.5511029 -10.249539 0.21931346 0
-18.066164 -11.439734 -0.30430445 0
-11.112439 -7.9037738 0.18899454 0
-10.846639 -8.3554211 -0.055172149 0
-8.2767467 -10.903659 0.42228851 0
-6.8528757 -6.2596178 0.30757096 0
-8.0966368 -10.998285 0.44201538 0
-6.5987573 -6.7806311 0.40553612 0
-7.1051121 -9.7806063 0.14910121 0
-7.044776 -10.119438 0.13823633 0
-7.1019669 -10.404073 0.2345168 0
-6.6821589 -10.164585 0.41894999 0
-6.7403398 -11.163016 0.33071044 0
-5.9698586 -9.5437965 0.16442309 0
-6.0168614 -9.8096514 0.24327515 0
-6.2784033 -10.385355 0.40393737 0
-6.3032198 -10.721765 0.34418908 0
-6.7392416 -13.399314 0.28270233 0
-7.4110551 -15.214307 0.29664874 0
-4.7895308 -6.2601953 0.39331722 0
-4.9009404 -6.6017113 0.53176177 0
-4.9579535 -6.8959551 0.37194252 0
-4.9737844 -7.8076358 0.39170697 0
-5.8100057 -10.005324 0.1290632 0
-5.9424181 -10.309925 0.11125368 0
-5.6275401 -10.74057 0.56225866 0
-5.8485584 -11.64455 0.060679521 0
-5.8945613 -11.764899 0.1271902 0
-5.9794064 -12.552027 0.12994246 0
-6.2978163 -12.833893 0.42811981 0
-6.1687946 -13.309711 0.25332335 0
-4.5541568 -6.320457 0.38762069 0
-4.5013051 -6.3949299 0.38705993 0
-4.348053 -7.1887913 0.45446023 0
-4.6961718 -7.6758771 0.37587065 0
-4.7213926 -7.8342261 0.20609738 0
-5.2116709 -9.9719009 0.42456731 0
-5.2223167 -10.363091 0.44845128 0
-5.580512 -11.051609 0.26991925 0
-5.3642025 -11.424423 0.079868138 0
-5.7493095 -11.821308 0.14105502 0
-5.6366453 -12.601439 0.26813194 0
-5.9317751 -12.867181 0.45883253 0
-6.1239638 -13.274823 0.31589875 0
-3.75965 -6.4941797 0.579436 0
-3.8077071 -6.6684799 0.49196768 0
-4.2535744 -7.1455393 0.2534461 0
-5.1025395 -11.622744 0.086086214 0
-5.187912 -12.55903 0.3049297 0
-4.0558629 -10.227518 0.3819558 0
-4.909482 -12.553609 0.33283505 0
-3.7469437 -10.248977 0.39680457 0
-3.6289442 -10.893221 0.43320203 0
-2.6902785 -8.2252817 0.54312396 0
-2.6855495 -8.3862562 0.39644411 0
-3.0386336 -10.18057 0.39021319 0
-3.2452037 -10.337388 0.37764511 0
-3.3551679 -10.842567 0.49078712 0
-2.129149 -7.7824278 0.46233836 0
-2.1965435 -7.9681678 0.48028824 0
-2.2261376 -8.5346498 0.53873801 0
-2.1872809 -9.0696316 0.54904693 0
-2.688314 -10.217497 0.41467744 0
-1.583708 -7.8422794 0.53053576 0
-1.6818479 -8.0523777 0.57425499 0
-2.052943 -8.6959467 0.6862002 0
-2.1057618 -9.1067448 0.41735899 0
-2.1043742 -9.7797947 0.30420426 0
-3.1336038 -14.711922 0.32389209 0
-1.2434777 -7.8005629 0.50581539 0
-1.4249154 -9.8206081 0.47223872 0
-1.7805835 -10.240333 0.34812224 0
-3.9259768 -21.499912 0.411935 0
-0.41666022 -7.7101111 0.81236726 0
-0.65512711 -7.8914604 0.72902435 0
-1.238579 -9.8104153 0.68018162 0
-0.10931592 -7.7565293 0.80593371 0
-0.16862403 -8.0229244 0.72464174 0
-0.36799121 -8.2839718 0.81833428 0
2.406287 -8.0993032 0.5573746 0
2.9724259 -8.1836233 0.65526205 0
2.7850339 -8.6462488 0.5982945 0
3.1947563 -8.283596 0.64609092 0
3.0994458 -9.9957399 0.60823923 0
3.0927448 -10.143337 0.58519578 0
3.9715586 -8.2952728 0.74637079 0
3.5407968 -9.9254293 0.62139916 0
4.3798428 -8.8731375 0.65479952 0
4.4052315 -9.4183073 0.80847561 0
5.5002079 -10.493366 0.70054698 0
5.4977713 -10.725554 0.7934792 0
5.8302355 -10.80388 0.86022711 0
6.9756527 -10.583996 0.86738306 0
6.9755688 -10.994246 0.87225133 0
7.5107412 -9.8138247 1.0832618 0
7.2807965 -10.973229 0.91192341 0
7.3118439 -11.07266 0.95021212 0
-11.108457 -7.9171791 0.45359108 0
-11.051537 -7.9205608 0.7095207 0
-11.033489 -8.1026125 0.70674217 0
-10.859572 -12.797335 0.65340412 0
-10.519032 -12.276351 0.53598994 0
-8.2584963 -10.892806 0.44579181 0
-8.4142361 -11.487581 0.56555051 0
-8.4134169 -11.644177 0.47710371 0
-8.118906 -10.939787 0.49524915 0
-8.2783146 -11.429653 0.67617279 0
-6.6206717 -6.7615552 0.86867219 0
-6.6887999 -10.195901 0.64995366 0
-6.7423911 -11.226728 0.67682183 0
-6.4073796 -10.357678 0.57940769 0
-6.28514 -10.676925 0.62970281 0
-4.7858372 -6.2668786 0.71742743 0
-4.8914304 -6.7518454 0.74150199 0
-4.8305521 -7.0663576 0.79408109 0
-4.9346247 -7.6584539 0.65910804 0
-5.6799879 -10.190142 0.58140153 0
-5.9209538 -10.742593 0.66697228 0
-6.2326021 -11.682683 0.67106235 0
-6.2576165 -12.312374 0.6358279 0
-6.4343114 -12.659508 0.66509366 0
-4.5663676 -6.3319502 0.68525404 0
-4.4443617 -7.1402202 0.92989916 0
-4.7471399 -7.6771011 0.89931279 0
-4.8777032 -7.84728 0.89777011 0
-5.7645335 -12.586922 0.61411768 0
-6.1366229 -13.477748 0.90794033 0
-6.0309277 -13.842719 1.0093746 0
-3.7210333 -6.5041404 0.77117962 0
-3.7745781 -6.6839767 0.78723049 0
-4.2565875 -7.2272091 0.985084 0
-4.3442178 -7.4864407 1.0720336 0
-5.2049322 -12.546459 0.61111808 0
-4.0581732 -10.154021 0.76877511 0
-4.2264762 -11.200108 1.0802073 0
-3.6643219 -10.270971 0.8664512 0
-4.102303 -11.157164 1.1192533 0
-2.6589954 -8.1982336 0.96112251 0
-2.7689309 -8.2952461 0.95800894 0
-3.1235766 -10.198466 0.7954151 0
-3.2500281 -10.364611 0.97287798 0
-3.3377891 -10.976893 0.78600228 0
-2.0913651 -7.79984 1.0721321 0
-2.2327867 -8.0797415 1.0030341 0
-2.2526381 -8.4647274 0.98074907 0
-2.2044582 -8.9347057 0.89036399 0
-2.6739972 -10.214159 0.75635511 0
-2.7361183 -10.456161 0.99086118 0
-4.1396494 -17.459063 0.60279864 0
-4.515583 -18.622355 0.6265707 0
-4.5168138 -18.658119 0.70469087 0
-1.4948415 -7.9658203 1.0704919 0
-2.1117895 -8.9443512 0.81607288 0
-2.4209828 -10.5177 1.0445046 0
-4.3581319 -19.934206 0.72895038 0
-4.5220442 -21.838041 0.87532389 0
-1.1494868 -7.9316149 1.128212 0
-3.1385908 -17.671824 0.65480477 0
-3.1398189 -17.993296 1.0765296 0
-0.60567284 -8.1941576 1.0734444 0
-1.0628972 -10.052974 0.95783174 0
-1.0356631 -10.285615 0.98507339 0
-3.92011 -22.691179 0.82492042 0
-0.69529068 -11.12084 1.0871373 0
0.37444615 -10.462227 0.99511212 0
2.9657726 -8.2020874 1.0629023 0
2.7931881 -8.6136227 1.2996259 0
4.5352325 -9.3380699 1.2531892 0
4.430728 -9.5041742 1.2336844 0
8.2214937 -11.907136 1.7148685 0
-26.730188 -11.071769 0.49293604 0
-14.847244 -16.268227 0.82670063 0
-14.850788 -17.217388 0.86918384 0
-11.531615 -13.756652 0.86128777 0
-10.567821 -11.548755 1.0480849 0
-10.578315 -11.916895 1.068184 0
-10.761416 -12.43089 1.1105554 0
-10.856892 -12.841128 0.94466817 0
-6.6484442 -6.7893667 1.2482132 0
-6.7825031 -10.30682 1.1006625 0
-6.8682342 -10.935086 1.2253547 0
-6.7902975 -10.98272 1.4333869 0
-6.7092638 -11.377275 1.48599 0
-6.690711 -11.939836 1.3042389 0
-6.6566534 -12.270772 1.3219672 0
-4.8466129 -7.156527 1.2682501 0
-4.4618163 -7.1408572 1.40246 0
-4.7523813 -7.7926726 1.2099856 0
-4.2629042 -7.2310972 1.2670987 0
-4.273057 -7.4343462 1.1814836 0
-4.1998653 -11.137958 1.2019906 0
-3.5467267 -10.412784 1.2482139 0
-2.6667387 -8.2278547 1.4054241 0
-2.6427443 -8.3292208 1.5397669 0
-3.1994843 -10.415362 1.3019018 0
-2.1041291 -7.7093849 1.3170426 0
-2.2423139 -8.1451464 1.4360462 0
-2.2942321 -8.4600201 1.5087045 0
-1.4840791 -7.9352732 1.5681704 0
-1.1497637 -7.8412528 1.5551687 0
-0.45490095 -9.578721 1.7739693 0
2.7702937 -8.6472368 1.5387297 0
8.2736588 -9.5035782 2.1292775 0
8.2870903 -9.8805008 2.0157011 0
8.2839956 -10.269661 2.0243108 0
8.2147923 -10.840127 2.0121558 0
8.2477541 -11.532459 1.8713728 0
8.2019138 -11.769544 2.0141127 0
8.3448105 -13.191998 2.053612 0
-26.79501 -10.954233 0.77765059 0
-26.671541 -11.53872 0.71809638 0
-15.714024 -17.502672 1.2631874 0
-15.716674 -17.862238 1.2762622 0
-14.963679 -17.230442 1.0590105 0
-10.950895 -12.822463 1.6873879 0
-10.809824 -13.211075 1.5213922 0
-6.8377213 -10.940591 1.9105728 0
-6.7621021 -11.056386 1.9230413 0
-6.7016935 -11.350789 1.8670954 0
-6.6868663 -11.81272 1.7626576 0
-6.6469574 -12.098158 1.5739009 0
-2.2736685 -8.3873081 1.7639428 0
-1.4240491 -16.986406 2.0270753 0
-1.2026905 -16.830994 2.0154738 0
3.1895885 -10.880523 2.187135 0
3.8251357 -14.003578 2.1167269 0
3.9928005 -13.921291 2.1788182 0
8.2709017 -9.4813061 2.4391947 0
8.2755804 -9.9748106 2.4560728 0
8.1318998 -10.853644 2.7047422 0
8.3240461 -13.028407 2.3481059 0
8.3282814 -13.3811 2.3657341 0
8.2548914 -13.870005 2.674113 0
-10.87322 -13.033155 1.7999136 0
-5.0548005 -6.9161077 0.20514308 0
-4.3084264 -7.0978789 0.22503117 0
-4.5334005 -7.4158916 0.21090713 0
-4.2838154 -7.1559486 0.22450697 0
-2.6263402 -10.24104 0.21523523 0
-0.94350189 -7.7842641 0.32084358 0
7.3435321 -10.413715 0.53305799 0
-19.31913 -7.5807118 -0.02165929 0
-11.00095 -7.0640774 0.30270985 0
-10.494411 -11.833488 0.34853998 0
-7.8315587 -6.3218398 0.13510388 0
-7.3542709 -6.4141383 0.39277056 0
-8.4115143 -10.104173 0.22179201 0
-8.2716665 -10.953657 0.47250202 0
-6.9309349 -6.3105469 0.35219717 0
-6.8678918 -6.9493051 0.37718347 0
-7.5906086 -9.7586384 0.13906834 0
-8.1413498 -11.04052 0.46688092 0
-6.5493236 -6.3174486 0.19542852 0
-7.120574 -9.951663 0.17046255 0
-7.1869102 -10.390604 0.24549162 0
-6.6766858 -10.238279 0.51520485 0
-6.7254424 -11.179266 0.35036984 0
-6.9319587 -11.382998 0.10049018 0
-7.5552697 -15.270345 0.2289132 0
-6.0045605 -9.709981 0.22416052 0
-6.2847514 -10.334919 0.40047652 0
-6.28581 -10.611083 0.41030252 0
-6.5170226 -12.657035 0.44693211 0
-6.692306 -13.430347 0.28962591 0
-7.3586979 -15.26814 0.25514996 0
-4.9930248 -6.9238267 0.45223385 0
-4.9958625 -7.6310511 0.53124273 0
-5.0359387 -7.8513203 0.44340518 0
-5.6455417 -10.21101 0.53807938 0
-5.7812486 -10.786193 0.5600006 0
-5.6696892 -11.109048 0.27222627 0
-6.020668 -11.748759 0.33577472 0
-6.3043561 -12.139972 0.54692131 0
-6.2288651 -12.781846 0.41909984 0
-6.1761675 -13.291232 0.27396846 0
-4.3454938 -7.1482406 0.49751243 0
-4.5552402 -7.423017 0.42484275 0
-4.7795262 -7.7935753 0.41640577 0
-5.2221732 -10.01813 0.40959546 0
-5.4094496 -10.874044 0.30199409 0
-5.5811253 -11.232634 0.24541485 0
-5.7461624 -11.905715 0.11759893 0
-5.5140948 -12.578506 0.27835509 0
-5.7832785 -12.700666 0.29040638 0
-6.008369 -13.317292 0.23703483 0
-4.0961604 -6.8039889 0.54339492 0
-4.2499623 -7.0680866 0.38923523 0
-5.1743364 -12.577732 0.32258576 0
-4.0708165 -10.239135 0.40770444 0
-4.8999462 -12.582422 0.1012994 0
-3.7562871 -10.246482 0.41353258 0
-3.6329753 -10.725896 0.4067497 0
-2.7287157 -8.2775087 0.49244273 0
-2.8994095 -10.078823 0.22800361 0
-3.1813054 -10.288137 0.42011559 0
-3.3654344 -10.816785 0.46009028 0
-2.0854409 -7.7232475 0.3755134 0
-2.2178113 -7.9051714 0.47836471 0
-2.222887 -8.5125494 0.58887196 0
-2.5847888 -10.16858 0.43074363 0
-2.6711881 -10.22936 0.46375307 0
-3.3913262 -14.739013 0.24147961 0
-4.2499924 -19.126202 0.31805834 0
-1.5740554 -7.7763953 0.46529675 0
-1.7124437 -7.9672189 0.53998798 0
-1.8858249 -8.7160549 0.53169024 0
-1.8611412 -8.8824301 0.43652159 0
-2.3231266 -10.21864 0.45302236 0
-2.9793892 -14.694001 0.31265643 0
-3.0254159 -14.720581 0.17785056 0
-4.2072449 -19.093836 0.12497672 0
-1.3039072 -7.7954416 0.53904104 0
-1.5362797 -8.9525099 0.66096067 0
-1.651782 -9.8153191 0.49443361 0
-1.7448967 -10.102468 0.40491179 0
-0.8049922 -7.7811165 0.54075265 0
-1.1157856 -9.6575966 0.37454641 0
-0.14992033 -7.8838453 0.68054926 0
-0.15209924 -8.1886148 0.76141858 0
2.7809587 -8.5082426 0.52434057 0
2.7166419 -8.7780666 0.47630835 0
4.4450192 -8.6680536 0.60363859 0
4.3889518 -9.2346888 0.69417524 0
5.8442087 -9.885005 0.56604743 0
5.7259097 -10.132958 0.80001342 0
5.8670287 -9.8311214 0.66202927 0
5.861443 -9.9423351 0.80354041 0
7.13586 -10.264271 0.81279659 0
-40.160305 -9.2332973 -0.38149193 0
-19.259007 -7.4234962 0.64525181 0
-10.977029 -7.0984588 0.623294 0
-10.94667 -7.2006593 0.70566946 0
-11.670115 -11.638494 0.68492681 0
-11.507234 -13.764338 0.7745114 0
-10.551479 -11.515697 0.74020892 0
-10.816959 -12.90497 0.75665039 0
-7.3149838 -6.3772235 0.88764173 0
-8.532855 -11.688539 0.53145295 0
-7.1342726 -6.4305792 0.92400438 0
-6.7444477 -10.29516 0.82563168 0
-6.7100706 -10.472586 0.84907651 0
-6.7353797 -11.111624 0.74245304 0
-6.0848861 -10.200696 0.6545288 0
-6.4096193 -10.578946 0.62826812 0
-6.6963811 -11.375214 0.68371016 0
-6.6979418 -11.831226 0.8495456 0
-6.6189761 -12.121414 0.99050021 0
-4.8769555 -6.9212489 0.93932462 0
-4.9938545 -7.6396556 0.97732919 0
-4.986444 -7.7592225 0.85286891 0
-5.9199977 -10.355664 0.77797306 0
-5.8070941 -10.737785 0.65802532 0
-6.1681628 -11.685885 0.72215456 0
-6.2998948 -12.107289 0.69620901 0
-6.2550993 -12.638326 0.57286829 0
-4.5102959 -7.0303879 1.0283827 0
-4.6913986 -7.5516791 0.92366141 0
-4.9145789 -7.7938485 0.88554054 0
-5.1085625 -10.394521 0.71992701 0
-5.845129 -12.6373 0.5720939 0
-6.0804954 -13.269142 0.88873094 0
-6.0469236 -13.711042 0.86133206 0
-4.1080694 -6.8135524 0.95804989 0
-4.2599835 -7.1243973 1.0379876 0
-4.3190269 -7.3896708 1.040058 0
-4.0583124 -10.215187 0.76093948 0
-4.2382646 -11.240129 1.0683372 0
-3.6371899 -10.274975 0.84274638 0
-3.6614187 -10.548442 0.95669568 0
-3.9025972 -11.09524 0.89471781 0
-2.7165222 -8.2224855 1.0271236 0
-3.2141809 -10.332375 0.94687498 0
-3.2694466 -10.963239 0.73697937 0
-3.5786347 -11.055889 0.74680412 0
-2.077291 -7.7256842 1.1541531 0
-2.2071469 -7.9294181 1.0266908 0
-2.252238 -8.4232435 1.0262612 0
-2.3959157 -10.025951 0.84616017 0
-2.7443321 -10.428603 0.92315251 0
-1.5108116 -7.9426146 1.1175678 0
-1.9702183 -8.4974728 1.0941007 0
-2.2988734 -10.08068 0.91149396 0
-2.3051732 -10.488795 0.92728722 0
-4.3183808 -21.71323 0.68070054 0
-1.3491154 -7.8322635 1.2232137 0
-1.3972394 -7.9105587 1.1751251 0
-1.476581 -10.300181 1.1183805 0
-1.9248285 -11.494054 1.0984826 0
-3.0029156 -17.972134 0.85106659 0
-4.2365155 -21.683533 0.75000834 0
-0.58923477 -8.1689453 1.054545 0
-1.3410877 -10.306852 1.1018158 0
-1.2984034 -10.610294 0.85725552 0
-2.9875445 -18.093197 0.97505581 0
2.8117983 -8.4522848 1.0121192 0
4.5125775 -9.2827492 1.2282047 0
7.4795151 -10.773276 1.4433404 0
-14.827137 -15.959735 0.83465314 0
-14.836163 -16.391996 0.8401981 0
-14.852518 -16.972321 0.83868623 0
-11.025628 -7.0850616 1.3990202 0
-10.917412 -7.1893568 1.3017123 0
-11.653566 -11.619359 1.0298793 0
-11.508913 -13.722281 0.90794992 0
-10.603036 -11.486061 1.1199455 0
-10.568671 -11.834184 1.2087591 0
-10.597934 -12.298843 1.2725093 0
-10.83089 -12.881924 1.0946076 0
-7.3054872 -6.4547949 1.5114367 0
-6.8335853 -10.347077 1.1317354 0
-6.7225771 -10.423551 1.1291659 0
-6.8140478 -11.098153 1.4236239 0
-6.6517887 -11.726418 1.4172008 0
-6.6507187 -12.094408 1.3229686 0
-6.6806898 -12.532644 1.3730061 0
-4.8634882 -7.0288086 1.3957945 0
-4.8658404 -7.2081723 1.391582 0
-5.0131536 -7.7595835 1.2401706 0
-4.6162438 -7.0696139 1.5112841 0
-4.541625 -7.2838268 1.4716502 0
-4.8610353 -7.7504706 1.2047361 0
-6.1188264 -13.653008 1.1129485 0
-4.2754655 -7.2419453 1.3044815 0
-4.2872705 -7.3660078 1.2736669 0
-4.1494765 -11.174398 1.2433865 0
-3.5239701 -10.429033 1.2673705 0
-4.1037688 -11.197613 1.1542861 0
-2.6587481 -8.2661037 1.4752684 0
-3.2369046 -10.444005 1.26566 0
-2.1283054 -7.6897473 1.3507504 0
-2.2035093 -7.9504385 1.3201783 0
-2.2953482 -8.4148998 1.5149293 0
-2.3450115 -9.8427172 1.2645144 0
-1.4341506 -7.8790741 1.5248739 0
-1.4764767 -7.9706831 1.5159366 0
-2.2056744 -10.505534 1.3028136 0
-1.2475607 -7.8167701 1.5377849 0
-1.4447533 -8.0047359 1.6269109 0
-1.8913821 -11.867022 1.5072705 0
-1.9010895 -12.118889 1.5475302 0
-5.2366824 -28.519907 0.88109154 0
-1.346467 -10.421124 1.2780781 0
-2.7172906 -25.061626 0.90733689 0
7.2915535 -10.632008 1.6514841 0
7.3373094 -10.909984 1.6779494 0
8.2848005 -9.6047306 1.9060248 0
8.2800303 -10.47681 1.9110444 0
8.1768055 -11.150496 1.842015 0
-16.468498 -17.947695 1.4266213 0
-16.386839 -18.375362 1.4382081 0
-16.277422 -18.099602 1.3235266 0
-15.617359 -17.582085 1.1388034 0
-11.037427 -7.0503407 1.6021643 0
-11.624597 -11.917023 1.8261294 0
-11.666771 -12.122916 1.8454169 0
-11.629043 -12.456182 1.8636048 0
-11.070425 -12.288713 1.7262099 0
-11.230118 -12.624753 1.8499919 0
-10.880247 -11.85421 1.5434568 0
-10.692097 -12.22408 1.5382345 0
-10.909328 -12.871504 1.7100776 0
-10.817105 -13.2216 1.631834 0
-10.731782 -13.3814 1.7620589 0
-11.607743 -25.804808 1.5445062 0
-6.7783527 -11.096475 1.909341 0
-6.7035828 -11.364116 1.852191 0
-6.6640487 -11.672624 1.8434731 0
-6.6470709 -12.209905 1.7696195 0
-6.6597252 -12.459011 1.5704044 0
-1.9008688 -11.307137 1.9794021 0
-1.9091594 -11.690451 1.9439054 0
-1.9278283 -11.98372 2.0531104 0
-5.1574759 -28.570307 1.4754893 0
3.1624258 -11.464568 1.9842662 0
8.280097 -9.4910688 2.2147238 0
8.2122984 -11.736564 2.1046431 0
-2.248493 -7.8020401 0.19409686 0
-1.7325374 -7.7707233 0.20585269 0
-11.812232 -11.005885 0.32867086 0
-11.595945 -10.399444 0.11611876 0
-11.66598 -10.921666 0.34717289 0
-11.70127 -11.222896 0.31801635 0
-10.71769 -10.258617 0.27581215 0
-10.660146 -10.445175 0.12130319 0
-10.646133 -10.666447 0.30702841 0
-10.474781 -11.41509 0.36897793 0
-10.519488 -11.635322 0.38037476 0
-10.40751 -11.866616 0.3837325 0
-10.433444 -12.176625 0.40799287 0
-8.5206032 -9.9171543 0.31494567 0
-8.2991972 -9.7949533 0.19162656 0
-8.4174833 -10.045756 0.28771845 0
-8.2512007 -10.974755 0.37526491 0
-8.5978746 -12.568321 0.34712708 0
-7.568181 -9.7346478 0.16521865 0
-7.5768223 -10.500425 0.30636838 0
-8.0631285 -11.019408 0.35391858 0
-7.1306782 -9.9048119 0.20543306 0
-7.2516179 -10.34402 0.24931079 0
-6.6387515 -10.190331 0.45760763 0
-6.55339 -10.30236 0.54616559 0
-6.7283854 -11.10244 0.30186957 0
-7.6000414 -15.208002 0.22701938 0
-5.3872337 -7.4788218 0.44734147 0
-5.5383248 -8.0851297 0.46733478 0
-5.9763613 -9.6499519 0.20609429 0
-6.0556369 -9.9855051 0.25199628 0
-6.2901978 -10.441184 0.3622463 0
-6.5957098 -12.995374 0.32452971 0
-6.6866302 -13.376072 0.36062688 0
-7.3580527 -15.210699 0.22746614 0
-4.9665594 -7.1779313 0.34621328 0
-5.1979208 -7.6372862 0.42184833 0
-5.3508558 -8.0217047 0.38476306 0
-5.6739392 -10.096296 0.31538102 0
-5.8756967 -10.788806 0.53426588 0
-5.6744823 -11.125675 0.28838485 0
-6.2408195 -11.792079 0.30898312 0
-6.2854433 -12.092031 0.43304163 0
-6.2126694 -12.712611 0.34327292 0
-6.3190737 -13.085952 0.31134671 0
-6.9408269 -15.24424 0.3832998 0
-4.4181571 -7.3223557 0.3752448 0
-4.7520347 -7.7070656 0.32448962 0
-5.1942177 -9.992425 0.28980881 0
-5.1789775 -10.409311 0.3637982 0
-5.3344302 -10.828923 0.36028609 0
-5.5581512 -11.108206 0.19923685 0
-5.7012005 -11.855623 0.14737795 0
-5.4536319 -12.527273 0.4811472 0
-5.6941748 -12.625844 0.31415457 0
-6.043117 -13.215037 0.25556836 0
-4.2741542 -7.1963472 0.22060193 0
-5.1281366 -12.547414 0.31327197 0
-5.385942 -12.549492 0.29422018 0
-4.0456972 -10.211111 0.37199402 0
-4.9275713 -12.539521 0.49489808 0
-3.7443664 -10.210359 0.38001415 0
-3.6175103 -10.675882 0.3422685 0
-2.7389777 -8.2443113 0.4235315 0
-3.1408849 -10.246672 0.36487499 0
-3.3302779 -10.703831 0.46121705 0
-3.3635592 -10.968268 0.36335263 0
-2.2109132 -7.9229288 0.41810858 0
-2.1753974 -8.4587746 0.48622742 0
-2.1896331 -8.6737995 0.31698003 0
-2.6466773 -10.202709 0.40565383 0
-1.6574191 -7.8889141 0.43372402 0
-1.8402894 -8.5380478 0.43431923 0
-1.767756 -8.9082212 0.41150308 0
-2.1611209 -9.808198 0.44505647 0
-2.2893665 -10.205806 0.40458375 0
-3.2885959 -14.688169 0.32070065 0
-4.211462 -19.893232 0.4555741 0
-1.2796967 -7.8628869 0.48056945 0
-1.517604 -8.694272 0.5310328 0
-1.5890373 -8.9293795 0.24165268 0
-1.3813225 -9.8165712 0.35657382 0
-1.5448464 -9.827364 0.34328702 0
-2.7642663 -15.788336 0.35753584 0
-3.2814989 -17.642014 0.52099717 0
-3.9020817 -19.899982 0.47494164 0
-16.609573 -12.166932 0.64595109 0
-16.588446 -12.338722 0.39856356 0
-16.695335 -12.733895 0.41033933 0
-14.745061 -15.34188 0.53481573 0
-14.695652 -18.361547 0.73973864 0
-11.601158 -10.33468 0.7124849 0
-11.625244 -10.874513 0.63037711 0
-11.703318 -11.379839 0.63222474 0
-10.708637 -10.287194 0.76470953 0
-11.442727 -13.794426 0.75099838 0
-10.639493 -10.529896 0.87497735 0
-10.552262 -11.518543 0.89932942 0
-10.883702 -12.799066 0.69709462 0
-6.6987143 -7.0581641 0.99807268 0
-6.7075863 -10.16857 0.73906493 0
-6.6851912 -10.387997 0.82573611 0
-6.7589421 -11.010326 0.83476096 0
-6.1533494 -10.220111 0.63385963 0
-6.2067108 -10.680268 0.6764521 0
-6.6986499 -11.714034 0.94140959 0
-6.6379552 -11.995084 1.0104868 0
-5.005662 -7.4992661 0.89349127 0
-5.1041346 -7.6110454 0.82229877 0
-5.3295312 -8.0127974 0.73571509 0
-5.7085395 -10.234056 0.66322827 0
-5.7806311 -10.647683 0.68425083 0
-6.1747456 -11.621657 0.70970881 0
-6.2760162 -12.050123 0.74955612 0
-6.2154908 -12.606283 0.5918591 0
-4.3960524 -7.411788 0.86758226 0
-4.8675032 -7.7520189 0.85731137 0
-5.0928941 -10.384281 0.67418432 0
-6.1050735 -13.222522 0.90027636 0
-6.076529 -13.650007 0.87447739 0
-4.2749205 -7.3088598 0.93059325 0
-4.0656838 -10.186661 0.70923245 0
-4.1744747 -11.137059 1.0464463 0
-3.6460676 -10.198424 0.75559485 0
-3.6102309 -10.667222 0.83958477 0
-4.0866709 -11.124995 1.0371202 0
-2.734771 -8.240447 0.93487537 0
-3.1923409 -10.284394 0.85726649 0
-3.3169119 -10.756284 0.74313605 0
-2.1804719 -7.9070063 0.96131414 0
-2.234271 -8.3805437 0.96203285 0
-2.7206426 -10.390281 0.81679267 0
-2.5490339 -10.629693 0.8725633 0
-1.3930075 -7.8675771 1.1664699 0
-2.0036352 -8.4745493 0.76922369 0
-2.1198077 -9.6591587 1.0353233 0
-2.216346 -9.7781696 0.94429386 0
-2.2768295 -10.3223 0.80765134 0
-4.5146651 -21.484879 0.9847157 0
-1.3120437 -7.8959622 1.1325232 0
-1.9016356 -11.420464 1.1754277 0
-3.9067221 -19.911835 0.63883567 0
-4.1844039 -21.50448 0.98830742 0
-4.3654995 -21.85321 0.76569837 0
-1.0262043 -10.29605 0.86434668 0
-14.893969 -16.090099 0.98619992 0
-11.148123 -6.62672 1.0920341 0
-11.656125 -10.286874 1.2512566 0
-11.847381 -10.982301 1.3135647 0
-11.617396 -10.339784 1.0986537 0
-11.693572 -11.015964 1.3174508 0
-11.673371 -11.435436 1.2603438 0
-10.751001 -10.193387 1.1779648 0
-11.023638 -11.485003 1.2752141 0
-10.559251 -11.678793 1.2519461 0
-10.628276 -12.130232 1.3136865 0
-10.902614 -12.810839 1.2877603 0
-10.840722 -13.14233 1.2953545 0
-10.527902 -12.302864 1.1767401 0
-6.7933779 -10.322198 1.1289533 0
-6.7685981 -10.965973 1.5017098 0
-6.7133961 -11.165065 1.531854 0
-6.6446333 -11.62153 1.3935592 0
-6.6285357 -12.015894 1.2608354 0
-6.6650949 -12.475588 1.2663643 0
-5.0539141 -7.5095682 1.1935359 0
-5.0256934 -7.661768 1.1855249 0
-4.3967271 -7.4837475 1.1678655 0
-4.799551 -7.7401013 1.1371572 0
-4.2890115 -7.3430338 1.2175348 0
-3.5150371 -10.392582 1.2217684 0
-3.5232882 -10.408141 1.214467 0
-2.6554408 -8.2626734 1.3601462 0
-3.2293835 -10.400808 1.2251763 0
-2.206526 -7.9347367 1.2490067 0
-2.2417994 -8.359024 1.3775887 0
-1.4257754 -7.8931737 1.2996739 0
-2.1523607 -9.6473818 1.4145774 0
-2.1940393 -9.7944317 1.5187116 0
-2.1758587 -10.489131 1.2980776 0
-4.4281545 -21.58939 1.255499 0
-1.3340175 -7.8560872 1.3666701 0
-1.8851671 -11.649784 1.5650134 0
-1.8493201 -12.254411 1.5126516 0
-0.47163808 -9.6382084 1.4534923 0
-2.2923024 -25.395639 1.3916061 0
3.107837 -11.876687 1.7239749 0
-16.616064 -12.406972 1.4331973 0
-16.614962 -17.600443 1.6221192 0
-11.662886 -11.49656 1.6475356 0
-11.617479 -11.871467 1.4784232 0
-10.954658 -11.671577 1.5448444 0
-10.632535 -10.351108 1.650193 0
-10.625899 -10.578947 1.5525321 0
-10.71253 -11.773216 1.5138967 0
-10.629539 -12.086545 1.5219539 0
-10.937947 -12.773145 1.6030506 0
-10.798798 -13.127512 1.6465216 0
-6.7523546 -11.013721 1.7306501 0
-6.7147522 -11.205223 1.7613026 0
-6.6528878 -11.487531 1.7610847 0
-6.6242599 -12.02935 1.8426665 0
-6.6634259 -12.408505 1.9989624 0
-2.1561403 -9.7997618 1.7293816 0
-1.8339226 -11.050451 2.0573745 0
-1.8912257 -11.624496 1.8120826 0
-1.9000925 -12.016422 1.8562326 0
-0.46914005 -9.7302542 2.0375016 0
-2.2646799 -25.262867 1.8015527 0
-11.269938 -12.487231 1.9037722 0
-6.6643152 -11.33932 2.0520964 0
-6.6146007 -11.976355 2.0487561 0
-1.8174008 -11.223242 2.1920128 0
-8.3008137 -9.697197 0.0052209487 0
-7.6054363 -9.782711 0.030392064 0
-4.7376041 -7.7819986 0.17925298 0
-2.3733172 -8.0316238 0.26530263 0
-16.614628 -11.921211 0.012707009 0
-11.61983 -10.416454 0.07419125 0
-11.80894 -11.148466 0.32874861 0
-11.540765 -10.895066 -0.055443726 0
-11.696696 -11.332105 0.32256469 0
-10.715158 -10.367428 0.075043418 0
-10.690456 -10.663314 0.06207782 0
-9.6247368 -9.6889 -0.037102003 0
-10.457738 -11.37921 0.29738796 0
-9.5184841 -10.055425 -0.042872149 0
-8.2844162 -9.8052597 0.087198354 0
-8.3722954 -9.9924765 0.18756045 0
-6.3368316 -6.3459854 0.20194383 0
-7.5805888 -9.7716827 0.10133886 0
-8.1862555 -10.986891 0.45010269 0
-7.1466913 -9.8745317 0.15358928 0
-5.6254191 -7.4878616 0.37566322 0
-6.8527045 -10.191677 0.34340486 0
-5.0157146 -7.0137396 0.40497628 0
-5.3385158 -7.5860186 0.47958222 0
-5.376317 -8.0341005 0.37277165 0
-5.997376 -9.5856133 0.1808863 0
-6.0033684 -9.8615103 0.23366301 0
-6.3498664 -10.411761 0.37735179 0
-6.2633524 -10.792331 0.50472468 0
-6.7390656 -11.149895 0.26496971 0
-4.4296222 -7.3038898 0.42938107 0
-4.7882953 -7.7097349 0.34388602 0
-5.7006712 -10.153467 0.37965459 0
-6.0838165 -10.429699 0.49676538 0
-5.9721103 -10.823373 0.57184172 0
-6.2445712 -11.972642 0.4109681 0
-6.4641366 -12.698312 0.43352392 0
-6.6848621 -13.170588 0.26304564 0
-7.4515014 -15.273004 0.2743763 0
-4.3290334 -7.2151132 0.31291884 0
-5.2058964 -10.178297 0.32580039 0
-5.4173255 -10.710414 0.44102675 0
-5.5913024 -11.100024 0.22071865 0
-5.7790136 -11.849798 0.10523166 0
-5.7397819 -11.902415 0.10962288 0
-6.022438 -12.675732 0.27799046 0
-6.2428265 -12.967855 0.34370145 0
-6.6723065 -13.413062 0.22702095 0
-7.2191925 -15.282981 0.25722989 0
-5.3668852 -12.570704 0.35754052 0
-5.5892 -12.635694 0.2850897 0
-6.0686979 -13.330821 0.23572503 0
-4.0419168 -10.227923 0.38673127 0
-5.1038051 -12.567042 0.31428111 0
-2.7109113 -8.2166233 0.64551491 0
-2.7949364 -8.2778473 0.47477448 0
-3.7100194 -10.24607 0.38527259 0
-3.6275351 -10.781808 0.41094163 0
-2.2857456 -8.0259361 0.45756871 0
-2.3117933 -8.7003441 0.444058 0
-2.982064 -10.188246 0.40469739 0
-3.2997186 -10.373841 0.43793264 0
-3.3693967 -10.853113 0.49555612 0
-1.7594254 -8.5860519 0.61157364 0
-2.0083194 -8.7430038 0.50958139 0
-2.1895285 -9.7618284 0.47580263 0
-2.5459034 -10.207793 0.46676841 0
-3.064029 -10.900181 0.6752969 0
-1.5171692 -8.6533384 0.54796457 0
-1.649135 -8.847065 0.43075389 0
-2.0035305 -9.9912367 0.42054665 0
-2.0434706 -10.189735 0.55017304 0
-1.6300782 -9.9773273 0.31994307 0
-3.1792395 -14.692865 0.17294376 0
-4.1949272 -19.027731 0.18619253 0
-2.6839061 -15.827749 0.25317585 0
-3.9753623 -19.914154 0.1944741 0
-3.8087754 -19.899218 0.35441503 0
0.80658042 -10.356091 0.69324929 0
1.3350985 -10.557562 0.7527501 0
-16.677166 -11.81108 0.52989089 0
-16.586395 -12.340348 0.55193347 0
-16.671297 -12.814804 0.6219933 0
-11.61253 -10.47016 0.84275287 0
-11.866204 -11.109322 0.4794299 0
-11.578142 -10.943263 0.65385222 0
-11.674893 -11.543087 0.59920084 0
-10.73847 -10.336887 0.78088254 0
-10.652336 -10.764823 0.55831689 0
-10.964507 -11.553542 0.61083335 0
-10.508245 -11.517791 0.59909135 0
-10.852068 -12.896262 0.73193687 0
-10.756988 -13.055894 0.79567802 0
-6.7375331 -10.298241 0.88449353 0
-6.7484446 -10.559793 0.87027472 0
-4.9125419 -6.974987 0.85926461 0
-5.1460319 -7.6004062 0.97235209 0
-5.3810258 -8.048913 0.7919125 0
-6.0207477 -10.132075 0.79270333 0
-6.5496435 -10.467293 0.75526172 0
-6.5278192 -10.753974 0.67835033 0
-6.6959219 -11.315862 0.71640289 0
-6.6758204 -11.749598 0.7211287 0
-4.4911146 -7.3407555 0.90639657 0
-4.9819717 -7.7487488 0.87913501 0
-5.6707468 -10.207386 0.66073692 0
-5.8255258 -10.540443 0.75863004 0
-5.8205438 -10.933172 0.58436614 0
-6.1780972 -11.673411 0.60297078 0
-6.2699003 -12.05478 0.68922061 0
-4.3403687 -7.3511472 0.9429003 0
-4.4779854 -7.6009545 1.0521079 0
-5.1017513 -10.431077 0.68718839 0
-5.5797043 -10.600509 0.66171253 0
-6.2421861 -12.160563 0.71136165 0
-5.11692 -10.670583 0.66664493 0
-5.6913123 -12.633142 0.57428259 0
-6.1017466 -13.281318 0.83924496 0
-6.0404053 -13.747048 0.81802684 0
-4.0432997 -10.203328 0.70461601 0
-2.7322876 -8.2155666 0.99626541 0
-2.7939999 -8.3173532 1.0096949 0
-3.6053383 -10.304087 0.84598851 0
-3.6451397 -10.875668 0.72114944 0
-4.156292 -11.155558 1.0982045 0
-2.3056526 -8.0982361 0.98279923 0
-2.3530631 -8.5122061 1.0450919 0
-3.0844748 -10.204696 0.75077438 0
-3.2214544 -10.382722 0.97876161 0
-3.3922317 -10.926089 0.72207421 0
-1.734139 -8.5888491 0.80864638 0
-2.0594568 -8.6304588 0.94603211 0
-2.2300601 -9.7092161 0.97115356 0
-2.7907975 -10.343226 0.75123066 0
-2.730381 -10.461828 0.97343004 0
-3.1112382 -11.062515 0.718014 0
-1.7175887 -8.8816633 0.81487155 0
-2.0266676 -9.7064819 0.94043422 0
-2.2547238 -10.341528 0.88894558 0
-2.122545 -10.648166 0.9678905 0
-1.692078 -10.276818 0.87938535 0
-1.9135901 -11.469941 1.1411355 0
-0.43744516 -9.9494953 1.2869759 0
-2.5857036 -17.141888 0.71728814 0
-2.6291449 -17.62392 0.5785985 0
-4.2966213 -21.781509 0.66700441 0
-4.3064742 -24.189146 0.75941819 0
-22.262583 -15.217859 0.45267954 0
-16.678078 -11.770463 0.77160835 0
-16.603039 -12.250385 0.78231031 0
-16.672491 -12.797298 0.79343992 0
-16.653345 -12.782302 0.82048857 0
-14.863414 -16.250317 0.85098338 0
-14.778871 -16.301714 0.74019063 0
-11.732056 -11.161386 0.86195534 0
-11.66551 -11.444771 0.99799532 0
-10.68879 -10.749235 1.2533524 0
-11.189971 -11.546975 1.0847051 0
-10.678717 -11.594576 1.2766882 0
-10.559228 -11.87707 1.1925378 0
-11.480875 -13.737163 0.91401219 0
-10.533162 -12.162048 1.1604631 0
-10.545438 -12.448188 1.2997332 0
-10.797059 -12.951555 0.84913468 0
-14.472468 -25.703133 0.64563966 0
-4.9283442 -6.9767981 1.3733585 0
-5.0962887 -7.6434236 1.320287 0
-6.6536789 -10.43906 1.0567073 0
-6.7080307 -11.278918 1.490087 0
-6.6827984 -11.839943 1.0721737 0
-4.7459841 -7.0161014 1.4815048 0
-4.8385615 -7.7545342 1.2567976 0
-5.1258793 -7.9329824 1.1683156 0
-6.6291971 -11.993286 1.2429059 0
-6.6035972 -12.349197 1.2401813 0
-4.3619967 -7.3987098 1.2487626 0
-6.0180478 -13.635962 1.0271407 0
-2.7369182 -8.2481174 1.2967587 0
-2.7643461 -8.315937 1.3757746 0
-3.4900711 -10.421339 1.2620478 0
-4.2017937 -11.138103 1.1390438 0
-2.3672388 -8.1034584 1.3640836 0
-2.6102071 -8.3218937 1.4101236 0
-3.1722925 -10.429864 1.259763 0
-2.1290274 -8.460824 1.5922476 0
-2.1559949 -8.5836353 1.4692686 0
-2.2401018 -9.7165403 1.3687299 0
-2.1230512 -9.7292423 1.5029274 0
-2.1596868 -10.517486 1.3637047 0
-1.8837067 -11.537454 1.4209495 0
-1.8608439 -11.815522 1.4831706 0
-0.48993114 -9.5992165 1.7000864 0
-1.8838273 -11.99876 1.5176047 0
-0.47700664 -9.6072664 1.7574495 0
-0.45022345 -9.8922205 1.5292336 0
-4.2324119 -28.591833 0.88846332 0
-2.2564352 -25.314383 1.2679178 0
-21.893015 -15.37633 1.049443 0
-16.695049 -12.005888 1.2090956 0
-11.659979 -10.491248 1.6172398 0
-11.8201 -11.125551 1.6699952 0
-11.59942 -10.862091 1.585945 0
-11.667414 -11.57276 1.6521548 0
-11.652949 -12.003232 1.6742432 0
-10.72061 -10.37984 1.5769845 0
-10.66239 -10.731524 1.557488 0
-11.619495 -12.280416 1.7455136 0
-11.581871 -12.434937 1.695328 0
-10.610447 -11.947103 1.5529044 0
-11.012561 -12.811213 1.6784554 0
-10.558906 -12.264059 1.5429003 0
-10.794141 -13.062206 1.6223871 0
-10.749099 -13.278675 1.7253343 0
-6.7361531 -11.007551 1.7915756 0
-6.7176747 -11.249768 1.8130302 0
-6.63273 -11.642009 1.7297335 0
-6.6382174 -11.898776 1.8889896 0
-6.6158175 -12.301428 1.7601978 0
-1.8479586 -11.216255 1.9838387 0
-1.8801885 -11.599505 2.0557611 0
-1.9138099 -11.90187 2.0970869 0
-1.8765111 -12.06166 1.869397 0
-0.4765327 -9.6250143 1.8620521 0
-0.45961475 -9.86726 1.9041061 0
3.0835116 -11.423823 2.3419676 0
3.0962558 -11.4717 2.1455429 0
3.0900218 -11.685201 2.2445481 0
-4.3507004 -7.25283 0.19555794 0
-2.3331492 -8.1210632 0.24473065 0
-24.509737 -16.083958 -0.051098861 0
-19.456739 -11.526917 0.11805276 0
-14.684444 -6.3140841 0.37828091 0
-16.744186 -11.215585 0.1335004 0
-16.673126 -11.695381 0.12432251 0
-12.401295 -10.142355 -0.028398063 0
-12.498677 -10.733474 -0.0049120528 0
-11.621788 -10.410751 0.39765558 0
-12.303129 -11.237457 0.026708771 0
-11.582708 -10.447104 0.15578476 0
-11.57165 -10.822408 0.38946441 0
-10.699718 -10.370548 0.1865453 0
-10.683921 -10.680099 0.27805009 0
-9.7512646 -9.7013731 0.008394964 0
-10.147179 -10.055173 -0.0094641801 0
-10.114431 -10.307167 -0.0043442352 0
-9.716011 -9.8513288 0.0057406644 0
-9.6026373 -9.9721251 0.0077568693 0
-6.8606892 -6.421082 0.32377452 0
-8.2804852 -9.8048744 0.14774816 0
-8.4304323 -10.053396 0.35473087 0
-6.6708984 -7.1719394 0.31302914 0
-7.7169199 -9.7665091 0.14434274 0
-8.1781511 -10.994825 0.46977097 0
-7.1985817 -9.7857876 0.15641253 0
-7.3747249 -9.8235312 0.22890849 0
-5.6129708 -7.4771967 0.57463682 0
-7.0177388 -9.8477459 0.15424876 0
-6.9693747 -10.08807 0.25326392 0
